1.206000 -0.092000 0.666000 0.000000 -0.005859 0.269490 
1.282000 -0.614000 0.534000 0.002706 -0.312419 0.706627 
1.710000 -0.320000 0.566000 0.334089 -0.439512 1.484098 
1.504000 -0.340000 0.604000 0.198379 -0.383353 1.463712 
1.400000 -0.348000 0.616000 0.092179 -0.178130 0.680132 
1.816000 -0.384000 0.516000 0.421571 -0.394373 1.441500 
1.810000 -0.310000 0.538000 0.258598 -0.241914 0.884238 
1.918000 -0.370000 0.486000 0.228100 -0.146136 0.568661 
1.504000 -0.424000 0.582000 0.179855 -0.485283 1.421186 
1.396000 -0.518000 0.564000 0.071398 -0.292259 0.871676 
1.398000 -0.434000 0.592000 0.115737 -0.473755 1.412998 
1.610000 -0.412000 0.564000 0.292422 -0.459997 1.415377 
2.508000 -0.200000 0.208000 0.746213 -0.157905 1.043860 
2.538000 -0.164000 0.192000 0.698445 -0.147797 0.977039 
2.034000 -0.560000 0.354000 0.612182 -0.641183 1.279141 
2.136000 -0.528000 0.318000 0.420376 -0.376862 0.807317 
1.172000 -0.624000 0.530000 -0.025818 -0.311869 0.613083 
1.166000 -0.710000 0.486000 -0.052289 -0.631615 1.241651 
1.610000 -0.492000 0.538000 0.232398 -0.333077 0.847216 
2.030000 -0.492000 0.390000 0.583057 -0.563819 1.307440 
1.610000 -0.650000 0.468000 0.339872 -0.639152 1.294056 
1.720000 -0.632000 0.448000 0.157231 -0.295684 0.598654 
1.446000 -0.678000 0.488000 0.146089 -0.452983 1.000555 
1.394000 -0.602000 0.530000 0.009111 -0.045554 0.099740 
1.400000 -0.684000 0.492000 0.139415 -0.697061 1.526197 
1.278000 -0.698000 0.492000 0.050329 -0.654283 1.303772 
1.304000 -0.696000 0.492000 0.048441 -0.629741 1.254869 
1.502000 -0.588000 0.522000 0.099636 -0.287291 0.583965 
1.564000 -0.660000 0.476000 0.156167 -0.450294 0.915294 
1.928000 -0.514000 0.426000 0.314895 -0.371923 0.790957 
1.826000 -0.608000 0.422000 0.511624 -0.623038 1.309112 
1.874000 -0.598000 0.408000 0.346231 -0.421628 0.885914 
1.824000 -0.534000 0.458000 0.198008 -0.268932 0.600393 
1.730000 -0.630000 0.446000 0.277134 -0.376400 0.840316 
1.718000 -0.554000 0.484000 0.030995 -0.048397 0.106582 
2.398000 -0.290000 0.264000 0.270366 -0.150565 0.406816 
2.420000 -0.384000 0.214000 0.398751 -0.398774 0.925146 
2.422000 -0.382000 0.214000 0.748886 -0.748928 1.737496 
2.278000 -0.472000 0.266000 0.805033 -0.677274 1.466915 
2.312000 -0.336000 0.304000 0.659538 -0.456726 1.105884 
2.220000 -0.372000 0.344000 0.170213 -0.126475 0.288715 
2.204000 -0.506000 0.294000 0.478695 -0.436565 0.939683 
2.158000 -0.522000 0.310000 0.568626 -0.542993 1.156465 
2.378000 -0.414000 0.230000 0.666980 -0.407844 1.024764 
2.562000 -0.212000 0.162000 1.529486 -0.066476 1.329947 
2.570000 -0.192000 0.160000 1.100783 -0.303671 1.366498 
2.474000 -0.232000 0.226000 0.083352 -0.027974 0.110184 
2.526000 -0.274000 0.176000 0.924025 -0.310121 1.221484 
2.522000 -0.280000 0.178000 0.833016 -0.370228 1.203242 
2.438000 -0.262000 0.244000 0.036327 -0.012557 0.047538 
2.462000 -0.348000 0.200000 0.905261 -0.250142 0.982690 
2.468000 -0.342000 0.196000 1.124515 -0.310726 1.220697 
2.494000 -0.312000 0.188000 0.807484 -0.391320 1.156877 
2.550000 -0.234000 0.168000 0.957014 -0.286116 1.248065 
2.532000 -0.264000 0.174000 0.633747 -0.211251 0.845000 
2.598000 -0.100000 0.150000 1.336244 -0.222691 1.558937 
2.592000 -0.134000 0.152000 1.013088 -0.075818 1.192276 
2.596000 -0.112000 0.150000 0.690723 -0.051692 0.812893 
2.562000 -0.126000 0.178000 0.277316 -0.051197 0.319983 
2.586000 -0.146000 0.154000 1.186753 -0.219095 1.369341 
2.606000 -0.058000 0.148000 0.665005 0.166253 0.498763 
-0.192000 0.000000 0.180000 -0.179627 -0.007747 0.182532 
-0.186000 -0.092000 0.182000 -0.962669 -0.041517 0.978238 
0.090000 -0.256000 0.360000 -0.808674 -0.295812 1.290398 
-0.052000 -0.166000 0.284000 -0.279655 -0.046609 0.357336 
-0.170000 -0.086000 0.198000 -0.756273 -0.056676 0.977664 
-0.008000 -0.266000 0.296000 -0.417415 -0.156401 0.633891 
-0.028000 -0.318000 0.270000 -0.973965 -0.364935 1.479074 
0.244000 -0.394000 0.404000 -0.389665 -0.223522 0.812730 
0.342000 -0.420000 0.436000 -0.548735 -0.509714 1.266359 
-0.164000 -0.224000 0.186000 -0.439687 -0.082892 0.529787 
-0.184000 -0.122000 0.182000 -0.492827 -0.067623 0.570696 
-0.174000 -0.178000 0.184000 -0.997888 -0.136924 1.155559 
-0.090000 -0.246000 0.242000 -0.777448 -0.217986 0.963219 
-0.098000 -0.376000 0.204000 -0.544751 -0.204116 0.738263 
-0.086000 -0.396000 0.206000 -1.375966 0.000000 1.452409 
-0.086000 -0.398000 0.206000 -0.763251 0.000000 0.805654 
-0.066000 -0.422000 0.210000 -0.451361 -0.224650 0.604907 
-0.038000 -0.458000 0.218000 -0.744769 -0.358332 0.994196 
0.046000 -0.380000 0.300000 -0.272838 -0.163475 0.468210 
0.026000 -0.444000 0.266000 -0.829850 -0.497217 1.424085 
0.068000 -0.474000 0.280000 -0.411634 -0.246637 0.706395 
0.132000 -0.432000 0.332000 -0.499187 -0.298920 0.855819 
0.006000 -0.352000 0.284000 -0.756784 -0.383623 1.220619 
0.112000 -0.502000 0.294000 -0.512238 -0.484136 0.960877 
0.122000 -0.588000 0.256000 -0.466979 -0.441360 0.875978 
0.096000 -0.570000 0.250000 -0.819809 -0.715968 1.404608 
0.042000 -0.534000 0.236000 -0.704039 -0.523787 1.130279 
0.016000 -0.512000 0.230000 -0.938516 -0.583616 1.419605 
-0.032000 -0.466000 0.220000 -0.394406 -0.235000 0.609686 
-0.028000 -0.470000 0.220000 -0.819053 -0.819051 1.424439 
0.050000 -0.540000 0.240000 -0.492852 -0.470245 0.896780 
0.080000 -0.560000 0.246000 -0.700321 -0.668197 1.274286 
0.192000 -0.622000 0.274000 -0.589057 -0.753021 1.357260 
0.214000 -0.632000 0.278000 -0.433493 -0.554156 0.998821 
0.232000 -0.638000 0.284000 -0.491757 -0.530177 0.945098 
0.770000 -0.372000 0.580000 -0.131147 -0.254847 0.757739 
0.442000 -0.438000 0.468000 -0.226072 -0.302851 0.709903 
0.756000 -0.462000 0.546000 -0.308820 -0.532448 1.275214 
1.084000 -0.366000 0.620000 -0.088779 -0.415860 1.362060 
0.874000 -0.372000 0.598000 -0.095374 -0.241615 0.756636 
0.320000 -0.668000 0.304000 -0.752276 -0.854857 1.401965 
0.332000 -0.672000 0.308000 -0.503488 -0.572144 0.938316 
0.638000 -0.546000 0.480000 -0.344654 -0.616043 1.215576 
0.426000 -0.522000 0.426000 -0.229666 -0.339581 0.675402 
0.524000 -0.710000 0.354000 -0.417034 -0.817929 1.304609 
0.596000 -0.718000 0.372000 -0.240997 -0.493422 0.811290 
0.508000 -0.708000 0.350000 -0.386563 -0.738613 1.176949 
0.518000 -0.624000 0.406000 -0.296919 -0.479748 0.815642 
0.412000 -0.606000 0.378000 -0.055519 -0.094301 0.155535 
0.418000 -0.692000 0.328000 -0.419334 -0.712249 1.174749 
0.638000 -0.720000 0.382000 -0.391006 -0.831958 1.337128 
0.726000 -0.726000 0.404000 -0.194129 -0.413055 0.663865 
0.762000 -0.728000 0.412000 -0.324451 -0.842010 1.427416 
0.760000 -0.728000 0.412000 0.000000 -0.837539 1.602248 
0.852000 -0.552000 0.526000 -0.124575 -0.334033 0.739514 
1.062000 -0.632000 0.520000 -0.073471 -0.566779 1.261609 
0.952000 -0.638000 0.504000 -0.097241 -0.370130 0.675305 
1.028000 -0.720000 0.470000 -0.122666 -0.466905 0.851872 
0.844000 -0.640000 0.482000 -0.201254 -0.571846 1.039963 
0.836000 -0.726000 0.430000 -0.288845 -0.671731 1.155377 
1.098000 -0.716000 0.482000 -0.191972 -0.606840 1.159568 
-0.060000 -0.028000 0.286000 -0.358050 -0.049646 0.421236 
-0.078000 0.000000 0.274000 -1.434204 -0.198861 1.687299 
-0.118000 0.000000 0.240000 -0.234239 -0.032479 0.275575 
0.090000 -0.054000 0.384000 -0.246438 -0.020744 0.358456 
0.036000 0.000000 0.350000 -0.397968 -0.033499 0.578862 
0.344000 -0.080000 0.508000 -0.400246 -0.017233 0.956143 
0.256000 -0.074000 0.470000 -0.136402 -0.017379 0.233831 
0.226000 0.000000 0.458000 -0.994478 -0.126710 1.704820 
0.202000 0.000000 0.444000 -0.448825 -0.057186 0.769415 
0.012000 -0.042000 0.336000 -0.660440 -0.014777 0.946895 
-0.128000 -0.016000 0.234000 -0.247720 0.002477 0.324513 
0.504000 -0.178000 0.556000 -0.294088 -0.105403 0.907421 
0.434000 -0.086000 0.544000 -0.269833 -0.096710 0.832584 
0.912000 -0.096000 0.652000 -0.124830 -0.016718 0.838145 
0.718000 -0.094000 0.622000 -0.205447 -0.011127 0.859140 
0.646000 0.000000 0.606000 -0.210600 -0.011406 0.880689 
0.528000 -0.090000 0.574000 -0.307736 -0.035868 1.109825 
0.832000 0.000000 0.642000 -0.171374 -0.024992 1.370992 
0.814000 -0.096000 0.638000 -0.161220 -0.044008 0.961821 
1.022000 0.000000 0.662000 -0.072050 -0.021462 1.440988 
1.134000 0.000000 0.668000 0.000000 -0.019710 0.906650 
0.898000 -0.188000 0.640000 -0.126596 -0.096323 0.886172 
0.798000 -0.188000 0.626000 -0.147352 -0.088254 0.873082 
1.108000 -0.094000 0.666000 -0.089851 -0.151705 1.467566 
0.142000 -0.128000 0.408000 -0.663574 -0.116574 1.123348 
-0.136000 -0.030000 0.228000 -0.278913 -0.017559 0.353875 
0.226000 -0.146000 0.450000 -0.614194 -0.164212 1.158013 
-0.030000 -0.124000 0.302000 -0.851610 -0.065825 1.194448 
0.014000 -0.214000 0.322000 -0.568916 -0.090729 0.843334 
0.362000 -0.338000 0.472000 -0.360503 -0.208647 0.848582 
0.384000 -0.254000 0.502000 -0.276886 -0.199301 0.755921 
0.698000 -0.186000 0.606000 -0.302302 -0.235515 1.325212 
1.000000 -0.188000 0.650000 -0.044576 -0.117709 0.782172 
0.562000 -0.362000 0.532000 -0.263404 -0.243142 0.871258 
0.784000 -0.280000 0.606000 -0.266758 -0.334434 1.327023 
0.682000 -0.278000 0.586000 -0.158799 -0.199086 0.789965 
0.886000 -0.280000 0.622000 -0.088304 -0.178940 0.780406 
1.970000 -0.072000 0.520000 0.232824 -0.020480 0.562658 
2.044000 0.000000 0.492000 0.282334 -0.024834 0.682307 
1.986000 0.000000 0.516000 0.685356 -0.060285 1.656279 
1.620000 0.000000 0.622000 0.097303 -0.017049 0.416240 
1.304000 -0.090000 0.662000 0.065017 -0.136953 1.524468 
1.596000 -0.084000 0.626000 0.105312 -0.046767 0.722983 
1.502000 -0.172000 0.634000 0.089482 -0.065796 0.723752 
1.878000 -0.076000 0.552000 0.528458 -0.020859 1.524397 
1.806000 0.000000 0.578000 0.302000 -0.052088 0.988565 
1.786000 -0.078000 0.580000 0.100760 -0.015501 0.403039 
1.890000 -0.150000 0.542000 0.442629 -0.112599 1.364384 
1.698000 -0.162000 0.596000 0.187110 -0.119150 0.887890 
1.294000 -0.356000 0.622000 0.041270 -0.180263 0.872113 
1.196000 -0.272000 0.644000 0.034917 -0.152514 0.737862 
1.402000 -0.262000 0.634000 0.089585 -0.147383 0.687787 
1.298000 -0.268000 0.640000 0.049627 -0.149834 0.710359 
1.608000 -0.330000 0.586000 0.162053 -0.180897 0.839998 
1.804000 -0.232000 0.558000 0.204729 -0.088845 0.645090 
1.998000 -0.214000 0.492000 0.507466 -0.195412 1.298964 
1.910000 -0.298000 0.508000 0.232100 -0.132629 0.580250 
2.104000 -0.268000 0.434000 0.352078 -0.142261 0.775903 
1.984000 -0.144000 0.508000 0.528460 -0.184240 1.268456 
2.380000 0.000000 0.316000 0.531000 -0.039404 0.812596 
2.336000 -0.098000 0.340000 0.384334 -0.026668 0.595719 
2.130000 0.000000 0.454000 0.294258 -0.037451 0.638004 
2.298000 0.000000 0.366000 0.413917 -0.032279 0.726624 
2.534000 0.000000 0.204000 0.469175 -0.013034 0.573436 
2.414000 -0.078000 0.290000 0.408993 -0.012553 0.607736 
2.196000 -0.250000 0.394000 0.437898 -0.138890 0.813627 
2.542000 -0.084000 0.198000 0.829209 -0.069530 1.099603 
2.512000 -0.110000 0.218000 0.904012 -0.106104 1.218081 
2.552000 -0.028000 0.194000 0.588251 -0.056925 0.702107 
2.590000 -0.030000 0.162000 0.484633 -0.046898 0.578435 
2.608000 0.000000 0.146000 0.342775 0.011059 0.406355 
2.566000 -0.056000 0.180000 1.099800 -0.103105 1.306024 
2.286000 -0.224000 0.350000 0.380301 -0.099867 0.643192 
2.078000 -0.136000 0.470000 0.589448 -0.222402 1.241186 
2.370000 -0.194000 0.306000 0.458492 -0.079650 0.683387 
2.486000 -0.056000 0.242000 0.056125 -0.022049 0.140313 
2.254000 -0.114000 0.386000 0.366115 -0.021605 0.682305 
2.166000 -0.126000 0.430000 0.090085 -0.011439 0.195185 
2.318000 0.000000 0.356000 0.804834 -0.114975 1.609663 
2.008000 -0.284000 0.472000 0.642015 -0.331779 1.482235 
1.704000 -0.242000 0.584000 0.407294 -0.303257 1.449878 
1.902000 -0.224000 0.528000 0.350681 -0.122469 0.947916 
1.604000 -0.250000 0.604000 0.323268 -0.318820 1.488814 
1.402000 -0.176000 0.646000 0.110600 -0.122623 0.878794 
1.504000 -0.256000 0.622000 0.088844 -0.098501 0.705922 
1.796000 -0.156000 0.572000 0.280621 -0.058165 0.917887 
1.956000 0.000000 0.526000 0.339766 -0.015178 0.974930 
1.302000 -0.180000 0.654000 0.125837 -0.136547 1.504692 
1.600000 -0.166000 0.618000 0.259779 -0.137531 1.539576 
1.092000 -0.276000 0.642000 -0.025751 -0.217750 0.900157 
0.980000 -0.370000 0.612000 -0.099296 -0.190264 0.778993 
0.988000 -0.278000 0.634000 -0.060059 -0.206129 0.883834 
0.666000 -0.368000 0.558000 -0.289251 -0.353958 1.303010 
1.100000 -0.186000 0.656000 -0.012128 -0.140838 0.912319 
0.580000 -0.274000 0.562000 -0.233144 -0.134941 0.794103 
0.290000 -0.238000 0.466000 -0.382752 -0.222499 0.884701 
0.266000 -0.316000 0.436000 -0.536552 -0.311905 1.240196 
0.316000 -0.160000 0.490000 -0.381696 -0.157844 0.926497 
0.116000 -0.192000 0.386000 -0.625082 -0.161260 1.207853 
0.200000 -0.218000 0.426000 -0.573063 -0.191021 1.193883 
-0.076000 -0.056000 0.274000 -0.773185 -0.087295 1.058230 
-0.092000 -0.084000 0.260000 -0.833559 -0.094111 1.140862 
0.038000 -0.160000 0.344000 -0.678698 -0.112476 1.174744 
0.480000 -0.266000 0.534000 -0.269702 -0.122791 0.763058 
1.200000 -0.182000 0.658000 -0.012602 -0.086108 0.802278 
1.010000 -0.094000 0.660000 -0.050763 -0.087715 0.875287 
0.600000 -0.184000 0.584000 -0.291749 -0.153821 1.285630 
1.116000 0.000000 0.668000 0.000000 -0.035220 1.655305 
0.622000 -0.092000 0.600000 -0.296883 -0.006999 1.294851 
0.408000 -0.170000 0.524000 -0.419404 -0.160221 1.218155 
-0.010000 -0.084000 0.320000 -0.663689 -0.064228 1.081171 
0.064000 -0.108000 0.364000 -0.630701 -0.094514 1.075100 
0.288000 0.000000 0.486000 -0.435201 -0.028734 1.003297 
0.170000 -0.064000 0.428000 -0.345896 -0.006547 0.627414 
0.464000 0.000000 0.554000 -0.301973 -0.004610 0.945568 
-0.144000 -0.044000 0.220000 -1.086113 -0.076218 1.219495 
0.892000 -0.726000 0.444000 -0.159599 -0.429690 0.789812 
0.946000 -0.724000 0.456000 -0.309058 -0.832079 1.529442 
1.056000 -0.718000 0.474000 -0.163119 -0.818178 1.550913 
1.178000 -0.538000 0.568000 -0.064896 -0.572207 1.305242 
0.454000 -0.700000 0.338000 -0.256668 -0.511928 0.813725 
0.616000 -0.720000 0.376000 -0.367379 -0.870111 1.401845 
0.626000 -0.634000 0.432000 -0.041389 -0.098026 0.157931 
0.532000 -0.538000 0.454000 -0.233367 -0.414149 0.810082 
0.400000 -0.688000 0.324000 -0.498793 -0.797704 1.322171 
0.736000 -0.640000 0.458000 -0.264824 -0.619929 1.191708 
1.076000 -0.456000 0.592000 -0.047723 -0.317653 0.882494 
0.960000 -0.548000 0.546000 -0.144564 -0.507570 1.280883 
1.070000 -0.544000 0.560000 -0.082311 -0.288995 0.729297 
0.970000 -0.460000 0.582000 -0.109250 -0.256612 0.755862 
0.746000 -0.552000 0.506000 -0.238917 -0.536235 1.266260 
0.650000 -0.458000 0.522000 -0.222746 -0.370424 0.839769 
0.460000 -0.352000 0.504000 -0.267834 -0.305557 0.863858 
0.546000 -0.450000 0.496000 -0.350597 -0.452945 1.263020 
0.864000 -0.462000 0.566000 -0.140177 -0.264155 0.756952 
0.296000 -0.660000 0.298000 -0.526521 -0.744099 1.237654 
0.308000 -0.582000 0.350000 -0.220267 -0.311289 0.517764 
0.008000 -0.504000 0.228000 -0.641219 -0.442919 1.003081 
0.152000 -0.602000 0.264000 -0.485531 -0.502668 0.936789 
0.208000 -0.548000 0.322000 -0.203470 -0.210651 0.392577 
0.224000 -0.470000 0.364000 -0.326534 -0.339191 0.754320 
-0.014000 -0.408000 0.254000 -0.084594 -0.036628 0.107268 
-0.048000 -0.372000 0.242000 -0.312339 -0.122888 0.460097 
-0.124000 -0.328000 0.196000 -0.578734 -0.228693 0.835430 
-0.124000 -0.330000 0.196000 -0.943086 -0.320794 1.220464 
-0.062000 -0.284000 0.256000 -0.298810 -0.101641 0.386696 
-0.164000 -0.222000 0.186000 -1.862305 0.000000 1.629516 
-0.152000 -0.256000 0.190000 -1.296896 -0.237379 1.516906 
0.324000 -0.500000 0.396000 -0.272973 -0.252530 0.616294 
0.152000 -0.360000 0.368000 -0.388991 -0.283057 0.782220 
0.176000 -0.290000 0.400000 -0.425895 -0.245527 0.856513 
0.068000 -0.318000 0.332000 -0.323746 -0.159129 0.530888 
-0.136000 -0.168000 0.218000 -0.660551 -0.068066 0.843865 
-0.106000 -0.112000 0.246000 -0.772648 -0.079617 0.987072 
-0.114000 -0.208000 0.230000 -0.866678 -0.187170 1.140651 
-0.184000 -0.114000 0.182000 -0.493912 -0.044901 0.510750 
2.606000 -0.052000 0.146000 0.681433 -0.026207 0.707651 
2.598000 -0.044000 0.154000 1.320577 -0.050788 1.371387 
2.582000 -0.084000 0.166000 0.235834 0.000001 0.314449 
2.560000 -0.218000 0.164000 0.451453 -0.117686 0.581680 
2.498000 -0.308000 0.186000 0.317847 -0.124763 0.427757 
2.580000 -0.166000 0.156000 0.595875 -0.117808 0.701734 
2.394000 -0.406000 0.224000 0.561728 -0.297386 0.806246 
2.236000 -0.492000 0.282000 0.763260 -0.592618 1.343974 
2.308000 -0.458000 0.256000 0.556284 -0.399659 0.969445 
2.332000 -0.444000 0.248000 0.813266 -0.584286 1.417289 
2.020000 -0.562000 0.360000 0.606630 -0.606636 1.213269 
1.898000 -0.594000 0.402000 0.444497 -0.435606 0.896400 
1.932000 -0.584000 0.390000 0.658058 -0.644896 1.327081 
1.588000 -0.656000 0.472000 0.312847 -0.488970 0.987210 
1.612000 -0.572000 0.506000 0.067044 -0.104788 0.211563 
1.390000 -0.686000 0.492000 0.073742 -0.397762 0.871502 
1.500000 -0.670000 0.482000 0.272969 -0.730156 1.483173 
2.024000 -0.424000 0.422000 0.239350 -0.230888 0.549417 
1.924000 -0.442000 0.458000 0.213965 -0.232570 0.551192 
1.822000 -0.460000 0.490000 0.532989 -0.579336 1.373029 
1.288000 -0.528000 0.568000 0.050649 -0.275723 0.678219 
1.236000 -0.704000 0.492000 0.064710 -0.452971 0.899778 
2.080000 -0.548000 0.338000 0.884744 -0.783161 1.694119 
2.480000 -0.134000 0.238000 0.558545 -0.102269 0.770951 
2.446000 -0.156000 0.260000 0.262867 -0.079256 0.393641 
1.714000 -0.398000 0.542000 0.437010 -0.475011 1.458646 
1.504000 -0.506000 0.554000 0.088045 -0.227899 0.677408 
1.716000 -0.476000 0.516000 0.162056 -0.205251 0.631543 
2.018000 -0.354000 0.450000 0.389077 -0.300331 0.834202 
2.124000 -0.400000 0.384000 0.242912 -0.187505 0.520816 
1.402000 -0.088000 0.654000 0.130004 -0.035989 1.583545 
-0.154000 -0.058000 0.212000 -1.161180 -0.013597 1.354256 
1.190000 -0.362000 0.624000 0.019959 -0.269451 0.907384 
1.184000 -0.450000 0.598000 0.030244 -0.408297 1.374951 
1.292000 -0.442000 0.598000 0.016027 -0.216363 0.728609 
-0.134000 -0.310000 0.194000 0.053839 0.013460 -0.094217 
-0.146000 -0.276000 0.192000 0.015866 0.003967 -0.027766 
-0.136000 -0.302000 0.194000 0.068045 0.017011 -0.187123 
1.212000 0.000000 0.668000 0.000000 0.036377 1.636943 
1.402000 0.000000 0.656000 0.068860 0.019503 0.838654 
1.304000 0.088000 0.662000 0.058139 0.016467 0.708080 
1.238000 0.000000 0.668000 0.067528 0.012278 0.922887 
1.288000 0.526000 0.568000 0.047755 0.525303 1.320281 
1.294000 0.354000 0.622000 0.068707 0.248043 0.883097 
1.714000 0.396000 0.542000 0.263963 0.249153 0.853741 
1.918000 0.368000 0.486000 0.362738 0.233653 0.896589 
1.610000 0.410000 0.564000 0.228602 0.289535 0.890877 
1.504000 0.504000 0.554000 0.272888 0.475313 1.391988 
1.504000 0.422000 0.582000 0.171651 0.298979 0.875582 
1.924000 0.440000 0.458000 0.359157 0.305283 0.861976 
2.438000 0.260000 0.244000 0.515199 0.155336 0.771505 
2.370000 0.192000 0.306000 0.480661 0.207261 0.776312 
2.446000 0.154000 0.260000 0.591828 0.113208 0.801432 
2.480000 0.132000 0.238000 0.558545 0.102269 0.770951 
2.512000 0.108000 0.218000 0.927490 0.169823 1.280200 
2.566000 0.054000 0.180000 0.278423 0.029053 0.329264 
2.082000 0.546000 0.338000 0.909595 0.744525 1.711388 
1.278000 0.696000 0.492000 0.044402 0.310814 0.729127 
1.236000 0.702000 0.492000 0.115623 0.809368 1.898665 
1.716000 0.474000 0.516000 0.370767 0.557148 1.381222 
1.394000 0.600000 0.530000 0.064225 0.349626 0.860005 
2.024000 0.422000 0.422000 0.239350 0.230889 0.549417 
1.610000 0.648000 0.468000 0.339872 0.639153 1.294057 
1.612000 0.570000 0.506000 0.222994 0.419356 0.849046 
1.500000 0.668000 0.482000 0.106300 0.301603 0.662018 
1.390000 0.684000 0.492000 0.073743 0.397763 0.871502 
1.282000 0.612000 0.534000 0.056463 0.304559 0.667292 
1.564000 0.658000 0.476000 0.213322 0.459637 1.006953 
1.898000 0.592000 0.402000 0.444497 0.435606 0.896400 
1.730000 0.628000 0.446000 0.389447 0.608086 1.339156 
1.720000 0.630000 0.448000 0.383720 0.599144 1.319463 
1.826000 0.606000 0.422000 0.505713 0.671133 1.407645 
2.030000 0.490000 0.390000 0.375921 0.400438 0.798152 
2.034000 0.558000 0.354000 0.606194 0.645730 1.287066 
1.932000 0.582000 0.390000 0.236818 0.252263 0.502809 
2.462000 0.346000 0.200000 0.693736 0.398965 1.055300 
2.420000 0.382000 0.214000 0.672114 0.386530 1.022408 
2.398000 0.288000 0.264000 0.279722 0.160867 0.425508 
2.220000 0.370000 0.344000 0.489528 0.338995 0.820819 
2.312000 0.334000 0.304000 0.659538 0.456726 1.105884 
2.308000 0.456000 0.256000 0.510118 0.394980 0.896122 
2.236000 0.490000 0.282000 0.672191 0.520472 1.180835 
2.124000 0.398000 0.384000 0.477037 0.383887 0.876166 
2.204000 0.504000 0.294000 0.566097 0.439535 0.996803 
2.394000 0.404000 0.224000 0.040827 0.071448 -0.007655 
2.378000 0.414000 0.232000 0.624684 0.427575 1.047709 
2.332000 0.442000 0.248000 0.674421 0.461618 1.131128 
2.538000 0.162000 0.192000 0.633768 0.125299 0.746358 
2.580000 0.164000 0.156000 0.796039 0.188990 0.939213 
2.532000 0.262000 0.174000 0.372303 0.120333 0.489312 
2.474000 0.230000 0.226000 0.821542 0.322475 1.105626 
2.498000 0.306000 0.186000 0.317847 0.124763 0.427757 
2.560000 0.216000 0.164000 0.451453 0.117686 0.581680 
2.582000 0.082000 0.166000 0.235835 -0.000001 0.314449 
2.596000 0.110000 0.150000 0.690723 0.051692 0.812893 
-0.114000 0.206000 0.230000 -0.866678 0.187170 1.140651 
-0.008000 0.264000 0.296000 -0.417415 0.156401 0.633891 
-0.062000 0.282000 0.256000 -0.556550 0.208534 0.845183 
0.006000 0.350000 0.284000 -0.640903 0.243956 1.000635 
0.090000 0.254000 0.360000 -0.462916 0.211898 0.832923 
0.132000 0.430000 0.332000 -0.280748 0.157613 0.498389 
0.244000 0.392000 0.404000 -0.362188 0.335063 0.817714 
-0.136000 0.166000 0.218000 -0.262688 0.053588 0.323632 
-0.164000 0.220000 0.186000 0.575874 0.000000 -2.879376 
-0.184000 0.112000 0.182000 -0.447941 0.063171 0.502498 
-0.184000 0.122000 0.182000 -0.576657 0.000000 2.883291 
-0.164000 0.222000 0.186000 -0.003503 0.000000 0.017514 
-0.098000 0.374000 0.204000 -0.415675 0.134107 0.546299 
-0.146000 0.274000 0.192000 -0.015867 0.003967 0.027767 
-0.134000 0.308000 0.194000 -0.974706 0.243677 2.680438 
-0.124000 0.326000 0.196000 -0.556457 0.198033 0.764310 
-0.136000 0.300000 0.194000 -1.094876 0.389647 1.503844 
-0.048000 0.370000 0.242000 -0.279699 0.164121 0.413770 
-0.086000 0.396000 0.206000 -0.754484 0.442714 1.116138 
0.046000 0.378000 0.300000 -0.358879 0.201779 0.590925 
0.122000 0.586000 0.256000 -0.804515 0.804515 1.609031 
0.192000 0.620000 0.274000 -0.371613 0.361194 0.680711 
0.096000 0.568000 0.250000 -0.819811 0.715968 1.404609 
0.112000 0.500000 0.294000 -0.156723 0.136871 0.268519 
0.042000 0.532000 0.236000 -0.916203 0.450829 1.156159 
0.008000 0.502000 0.228000 -0.343905 0.233439 0.531490 
0.068000 0.472000 0.280000 -0.523526 0.355363 0.809086 
-0.028000 0.468000 0.220000 -0.819053 0.819051 1.424439 
0.050000 0.538000 0.240000 -0.743114 0.663210 1.428699 
0.208000 0.546000 0.322000 -0.514101 0.610295 1.095004 
0.308000 0.580000 0.350000 -0.306135 0.363415 0.652048 
0.324000 0.498000 0.396000 -0.295934 0.377402 0.775694 
0.342000 0.418000 0.436000 -0.316685 0.341788 0.826083 
0.650000 0.456000 0.522000 -0.205297 0.265228 0.739578 
0.460000 0.350000 0.504000 -0.267834 0.305557 0.863858 
0.638000 0.544000 0.480000 -0.200233 0.311948 0.720349 
0.532000 0.536000 0.454000 -0.345102 0.537644 1.241527 
0.546000 0.448000 0.496000 -0.231146 0.360109 0.831563 
0.746000 0.550000 0.506000 -0.188042 0.312713 0.708935 
0.970000 0.458000 0.582000 -0.109250 0.256612 0.755862 
1.076000 0.454000 0.592000 -0.052047 0.416375 1.353221 
0.960000 0.546000 0.546000 -0.144565 0.507570 1.280884 
1.070000 0.542000 0.560000 -0.072646 0.483553 1.343392 
0.400000 0.686000 0.324000 -0.498794 0.797703 1.322170 
0.332000 0.670000 0.308000 -0.447049 0.557856 0.939949 
0.296000 0.658000 0.298000 -0.593009 0.739995 1.246840 
0.596000 0.716000 0.372000 -0.240998 0.493422 0.811290 
0.508000 0.706000 0.350000 -0.376279 0.735683 1.170717 
0.518000 0.622000 0.406000 -0.208405 0.407463 0.648410 
0.456000 0.698000 0.338000 -0.300426 0.490433 0.822049 
0.412000 0.604000 0.378000 -0.339357 0.553987 0.928576 
0.726000 0.724000 0.404000 -0.195104 0.418081 0.676893 
0.616000 0.718000 0.376000 -0.330140 0.707443 1.145384 
0.736000 0.638000 0.458000 -0.314516 0.697833 1.169608 
0.836000 0.724000 0.430000 -0.176553 0.463966 0.794491 
0.760000 0.726000 0.412000 -0.314544 0.828102 1.420085 
1.178000 0.536000 0.568000 -0.064895 0.572207 1.305242 
1.062000 0.630000 0.520000 -0.143211 0.646271 1.226924 
0.946000 0.722000 0.456000 -0.157100 0.406161 0.695897 
1.166000 0.708000 0.486000 -0.013071 0.330170 0.717465 
1.098000 0.714000 0.482000 -0.030428 0.768586 1.670153 
0.434000 0.084000 0.544000 -0.380668 0.005948 1.191968 
0.090000 0.052000 0.384000 -0.543081 0.010648 0.985000 
0.118000 0.000000 0.400000 -0.635427 0.012459 1.152489 
0.012000 0.040000 0.336000 -0.219633 -0.005386 0.317779 
-0.042000 0.000000 0.298000 -0.977804 -0.023979 1.414751 
-0.128000 0.014000 0.234000 -0.608058 -0.085128 0.814798 
0.064000 0.106000 0.364000 -0.630701 0.094514 1.075100 
-0.010000 0.082000 0.320000 -0.238019 0.008207 0.336509 
0.316000 0.158000 0.490000 -0.331781 0.062997 0.724460 
0.504000 0.176000 0.556000 -0.272631 0.104151 0.791855 
0.738000 0.000000 0.628000 -0.492837 0.005356 1.724926 
0.912000 0.094000 0.652000 -0.099704 0.046888 1.233089 
0.942000 0.000000 0.658000 -0.076363 0.035912 0.944423 
1.108000 0.092000 0.666000 0.000000 0.004100 0.188602 
0.898000 0.186000 0.640000 -0.136590 0.160938 1.393219 
0.200000 0.216000 0.426000 -0.573064 0.191021 1.193883 
0.290000 0.236000 0.466000 -0.501418 0.207353 1.217100 
-0.092000 0.082000 0.260000 -0.700939 0.086270 0.873478 
-0.052000 0.164000 0.284000 -0.832512 0.119124 1.295469 
0.266000 0.314000 0.436000 -0.300805 0.135859 0.653892 
0.362000 0.336000 0.472000 -0.296162 0.172163 0.684553 
0.682000 0.276000 0.586000 -0.193515 0.151851 0.797129 
1.084000 0.364000 0.620000 -0.052863 0.181433 0.777945 
0.980000 0.368000 0.612000 -0.099296 0.190264 0.778993 
0.874000 0.370000 0.598000 -0.171434 0.328489 1.344927 
2.078000 0.134000 0.470000 0.217833 0.045844 0.529199 
1.590000 0.000000 0.628000 0.293064 0.014295 1.465328 
1.200000 0.180000 0.658000 0.060742 0.135698 1.481056 
1.502000 0.170000 0.634000 0.114970 0.060867 0.681369 
1.402000 0.086000 0.654000 0.102298 0.045429 0.702288 
1.596000 0.082000 0.626000 0.157460 0.042123 0.644884 
1.786000 0.076000 0.580000 0.232171 0.065782 0.931587 
1.774000 0.000000 0.586000 0.339366 0.053583 1.357463 
1.878000 0.074000 0.552000 0.227680 0.010458 0.653272 
1.608000 0.328000 0.586000 0.130864 0.144786 0.675666 
1.504000 0.338000 0.604000 0.281738 0.311710 1.454645 
1.704000 0.240000 0.584000 0.224762 0.116443 0.888670 
1.810000 0.308000 0.538000 0.285968 0.203609 0.879866 
1.902000 0.222000 0.528000 0.534975 0.304846 1.341922 
1.998000 0.212000 0.492000 0.244776 0.139481 0.613992 
2.156000 0.000000 0.442000 0.704631 0.090921 1.526703 
2.468000 0.000000 0.258000 0.721206 0.293825 1.803010 
2.414000 0.076000 0.290000 0.633412 0.029634 0.914930 
2.458000 0.000000 0.262000 0.551873 0.025819 0.797151 
2.336000 0.096000 0.340000 0.524043 0.137613 0.886299 
2.486000 0.054000 0.242000 0.424565 0.035600 0.563010 
2.590000 0.028000 0.162000 1.444423 -0.049815 1.712143 
2.542000 0.082000 0.198000 0.595744 0.069923 0.802715 
2.286000 0.222000 0.350000 0.445452 0.115526 0.771643 
2.196000 0.248000 0.394000 0.437898 0.138890 0.813627 
2.552000 0.026000 0.194000 0.698827 -0.093296 1.015309 
2.166000 0.124000 0.430000 0.561559 0.072571 1.217288 
2.216000 0.000000 0.410000 0.355347 0.029975 0.702519 
2.254000 0.112000 0.386000 0.591959 0.049935 1.170300 
1.984000 0.142000 0.508000 0.528460 0.184240 1.268456 
2.008000 0.282000 0.472000 0.536828 0.306759 1.342071 
1.796000 0.154000 0.572000 0.252350 0.142155 0.915899 
1.804000 0.230000 0.558000 0.399481 0.225038 1.449912 
1.402000 0.260000 0.634000 0.102541 0.309593 1.467779 
1.400000 0.346000 0.616000 0.062083 0.187442 0.888662 
1.604000 0.248000 0.604000 0.285816 0.237822 1.508593 
1.504000 0.254000 0.622000 0.129551 0.107797 0.683798 
1.402000 0.174000 0.646000 0.086338 0.096149 0.687435 
1.298000 0.266000 0.640000 0.069245 0.302456 1.463286 
1.970000 0.070000 0.520000 0.360025 0.093150 0.978924 
1.890000 0.148000 0.542000 0.240006 0.062097 0.652588 
1.698000 0.160000 0.596000 0.149639 0.056726 0.656262 
1.600000 0.164000 0.618000 0.354386 0.134343 1.554204 
1.430000 0.000000 0.654000 0.072703 0.005592 0.447404 
1.206000 0.090000 0.666000 0.032349 0.068139 0.758479 
1.302000 0.178000 0.654000 0.035963 0.075753 0.843225 
0.580000 0.272000 0.562000 -0.383936 0.354403 1.269942 
0.784000 0.278000 0.606000 -0.124112 0.190215 0.791214 
1.100000 0.184000 0.656000 -0.010608 0.119076 0.768518 
1.196000 0.270000 0.644000 -0.011995 0.134650 0.869037 
1.000000 0.186000 0.650000 -0.137092 0.230316 1.398342 
0.988000 0.276000 0.634000 -0.088593 0.148837 0.903649 
1.092000 0.274000 0.642000 -0.050356 0.132972 0.883594 
0.600000 0.182000 0.584000 -0.186348 0.145178 0.816898 
0.698000 0.184000 0.606000 -0.302302 0.235515 1.325212 
0.798000 0.186000 0.626000 -0.112418 0.142442 0.802984 
0.886000 0.278000 0.622000 -0.122943 0.155779 0.878166 
0.384000 0.252000 0.502000 -0.276886 0.199301 0.755921 
-0.106000 0.110000 0.246000 -0.769684 0.076969 0.923621 
0.038000 0.158000 0.344000 -0.615290 0.074689 0.994066 
-0.076000 0.054000 0.274000 -0.334970 0.038299 0.457297 
-0.030000 0.122000 0.302000 -0.740325 0.084645 1.010683 
0.116000 0.190000 0.386000 -0.540709 0.094990 0.915353 
-0.144000 0.042000 0.220000 -0.901835 -0.016104 1.099111 
0.480000 0.264000 0.534000 -0.310101 0.139297 0.895477 
1.010000 0.092000 0.660000 -0.113527 0.139581 1.425592 
0.622000 0.090000 0.600000 -0.353377 0.135869 1.267142 
0.718000 0.092000 0.622000 -0.301913 0.160942 1.302806 
0.814000 0.094000 0.638000 -0.117693 0.089549 0.823854 
0.752000 0.000000 0.632000 -0.122257 0.018209 0.978054 
0.568000 0.000000 0.588000 -0.229287 0.005095 0.993579 
0.926000 0.000000 0.656000 -0.208909 0.028574 1.402678 
0.528000 0.088000 0.574000 -0.398786 0.142927 1.230474 
0.344000 0.078000 0.508000 -0.331592 0.091124 0.813792 
0.408000 0.168000 0.524000 -0.369133 0.101441 0.905926 
0.256000 0.072000 0.470000 -0.539275 0.076944 1.085910 
0.226000 0.144000 0.450000 -0.484061 0.069066 0.974728 
-0.060000 0.026000 0.286000 -0.661280 -0.006613 0.866277 
0.170000 0.062000 0.428000 -0.579277 0.070681 1.037167 
0.142000 0.126000 0.408000 -0.558003 0.068085 0.999076 
0.392000 0.000000 0.530000 -0.343343 -0.000000 1.030030 
0.374000 0.000000 0.522000 -0.451618 0.019943 1.078866 
0.068000 0.000000 0.372000 -0.548081 0.006023 0.978716 
0.554000 0.000000 0.584000 -0.399844 0.018175 1.199532 
-0.136000 0.028000 0.228000 -0.833348 0.059525 0.937516 
0.952000 0.636000 0.504000 -0.234255 0.658939 1.209882 
1.056000 0.716000 0.474000 -0.093642 0.384376 0.700380 
0.852000 0.550000 0.526000 -0.124575 0.334033 0.739514 
0.426000 0.520000 0.426000 -0.229666 0.339582 0.675403 
0.626000 0.632000 0.432000 -0.224469 0.401222 0.791690 
0.844000 0.638000 0.482000 -0.153953 0.393979 0.815950 
1.190000 0.360000 0.624000 -0.037295 0.410839 1.399142 
1.184000 0.448000 0.598000 -0.023559 0.259525 0.883832 
0.864000 0.460000 0.566000 -0.231815 0.525446 1.251798 
0.756000 0.460000 0.546000 -0.308820 0.532448 1.275214 
0.562000 0.360000 0.532000 -0.391256 0.446675 1.265764 
0.666000 0.366000 0.558000 -0.339534 0.442084 1.256114 
0.770000 0.370000 0.580000 -0.131147 0.254847 0.757739 
0.214000 0.630000 0.278000 -0.433493 0.554154 0.998819 
-0.032000 0.464000 0.220000 -0.394406 0.235000 0.609686 
-0.014000 0.406000 0.254000 -0.681071 0.405805 1.052823 
0.026000 0.442000 0.266000 -0.548000 0.326517 0.847117 
0.224000 0.468000 0.364000 -0.278354 0.215793 0.544015 
-0.066000 0.420000 0.210000 -0.451361 0.224650 0.604907 
0.068000 0.316000 0.332000 -0.338105 0.189814 0.567463 
0.152000 0.358000 0.368000 -0.326460 0.235918 0.611475 
0.176000 0.288000 0.400000 -0.699832 0.322556 1.230466 
-0.028000 0.316000 0.270000 -0.973965 0.364935 1.479074 
-0.090000 0.244000 0.242000 -0.389151 0.079938 0.561326 
-0.170000 0.084000 0.198000 -0.756273 0.056676 0.977664 
0.014000 0.212000 0.322000 -0.340556 0.124575 0.543424 
0.442000 0.436000 0.468000 -0.310174 0.281214 0.826877 
2.606000 0.050000 0.146000 1.525450 -0.381367 1.144108 
2.606000 0.056000 0.148000 0.665005 -0.166253 0.498763 
2.592000 0.132000 0.152000 0.891036 0.198004 1.089042 
2.470000 0.340000 0.196000 0.916718 0.385980 1.254442 
2.522000 0.278000 0.178000 0.833016 0.370228 1.203242 
2.562000 0.210000 0.162000 1.529486 0.066476 1.329946 
2.136000 0.526000 0.318000 0.636850 0.591237 1.262434 
1.398000 0.682000 0.492000 0.181003 0.724023 1.581419 
1.928000 0.512000 0.426000 0.230934 0.223314 0.517843 
1.718000 0.552000 0.484000 0.432791 0.541800 1.347688 
1.824000 0.532000 0.458000 0.208941 0.227110 0.537114 
1.502000 0.586000 0.522000 0.086202 0.276928 0.679104 
1.396000 0.516000 0.564000 0.110401 0.354669 0.869748 
2.598000 0.042000 0.154000 0.667534 0.023841 0.709249 
2.508000 0.198000 0.208000 0.688489 0.182773 0.975545 
2.562000 0.124000 0.178000 0.719821 0.107312 0.942700 
1.822000 0.458000 0.490000 0.210352 0.199565 0.558242 
1.610000 0.490000 0.538000 0.181963 0.286238 0.880734 
1.292000 0.440000 0.598000 0.056108 0.229674 0.685013 
1.816000 0.382000 0.516000 0.421571 0.394373 1.441500 
1.910000 0.296000 0.508000 0.302907 0.245958 0.915103 
1.398000 0.432000 0.592000 0.068707 0.248044 0.883097 
1.710000 0.318000 0.566000 0.334089 0.439512 1.484098 
2.018000 0.352000 0.450000 0.395888 0.227649 0.904286 
2.104000 0.266000 0.434000 0.252143 0.144991 0.575944 
1.172000 0.622000 0.530000 0.004937 0.569965 1.289142 
-0.154000 0.056000 0.212000 -1.149645 0.013686 1.341252 
