0.672994 0.723251 0.004915 -0.000019 0.000142 -1.983642 
0.771287 0.726536 0.004914 -0.000011 0.000079 -1.096437 
0.801086 0.726339 0.004913 -0.000054 0.000101 -1.118155 
0.463784 0.700077 0.004892 0.000096 0.000079 -1.999589 
0.478784 0.702942 0.004892 0.000054 0.000045 -1.131666 
0.571451 0.715201 0.004904 0.000141 0.000022 -1.126009 
0.394244 0.686795 0.004888 0.000093 0.000077 -1.950394 
0.614959 0.718650 0.004909 0.000117 0.000031 -1.149583 
0.145854 -0.598685 0.004825 0.000003 0.000001 -0.028843 
0.260629 0.648807 0.004907 -0.000485 0.000221 -1.027912 
0.323198 0.668772 0.004893 -0.000297 0.000192 -1.048407 
0.117062 0.582536 0.004977 -0.001716 0.000530 -2.153032 
0.139765 0.595888 0.004962 -0.000773 0.000239 -0.969329 
0.196212 0.623348 0.004932 -0.000656 0.000237 -1.001963 
0.210573 0.629023 0.004926 -0.000503 0.000229 -1.066847 
0.042792 0.533120 0.005029 -0.000815 0.000219 -0.880283 
0.091156 0.567299 0.004994 -0.001698 0.000525 -2.130479 
0.059952 -0.545350 0.004745 -0.000018 0.000006 -0.022554 
-0.128286 0.318722 0.005094 -0.000384 0.000269 -0.392967 
-0.101966 0.369328 0.005102 -0.002105 0.001475 -2.152030 
-0.163909 0.218080 0.005041 -0.000378 0.000293 -0.286277 
-0.150122 0.264458 0.005071 -0.003638 0.002819 -2.757013 
-0.132407 0.308481 0.005089 -0.003089 0.002383 -2.706450 
-0.029531 0.466224 0.005078 -0.003235 0.001484 -2.720499 
-0.063288 0.373272 0.005067 -0.000578 0.000275 -0.535139 
-0.073590 0.413031 0.005099 -0.002393 0.001139 -2.216146 
-0.039323 0.456115 0.005084 -0.000421 0.000201 -0.390306 
-0.087429 0.391717 0.005101 -0.001587 0.000896 -1.647361 
-0.000602 0.496091 0.005060 -0.003223 0.001477 -2.749144 
-0.167576 0.205741 0.005034 -0.003934 0.003009 -2.784205 
-0.180430 0.142141 0.004983 -0.003865 0.002975 -2.787321 
-0.191051 0.000000 0.004856 -0.000511 0.000345 -0.371457 
-0.190935 -0.015633 0.004835 -0.000935 0.000539 -0.404702 
-0.187525 -0.083816 0.004771 -0.002383 0.002015 -2.664379 
-0.188380 0.073208 0.004921 -0.000600 0.000383 -0.345456 
-0.182963 0.120183 0.004963 -0.000192 0.000113 -0.053102 
-0.159973 -0.231593 0.004657 -0.000058 0.000286 -0.547757 
-0.166543 -0.209876 0.004669 -0.000271 0.001344 -2.578409 
-0.179304 -0.149105 0.004714 -0.000389 0.000329 -0.434710 
-0.182739 -0.121820 0.004738 -0.002406 0.002035 -2.690009 
-0.124010 -0.327017 0.004620 0.000401 0.000246 -0.666396 
-0.127978 -0.319394 0.004621 0.000156 0.000250 -0.577614 
-0.075364 -0.410078 0.004628 0.000608 0.000228 -0.696958 
-0.102253 -0.368809 0.004618 0.000382 0.000234 -0.634317 
-0.037469 -0.458241 0.004653 0.000805 0.000228 -0.751803 
-0.072142 -0.415024 0.004629 0.002517 0.000713 -2.349938 
0.037333 0.528462 0.005033 0.000053 0.000013 -0.043145 
0.046681 -0.536163 0.004732 0.002582 0.000640 -2.185108 
0.002025 -0.498597 0.004688 0.000963 0.000238 -0.808968 
-0.014008 -0.482215 0.004674 0.002756 0.000682 -2.316231 
-0.149407 -0.266520 0.004638 -0.000055 0.000273 -0.524484 
0.334019 0.671517 0.004892 0.000036 -0.000003 -0.041503 
0.096911 -0.570936 0.004781 0.001628 -0.000141 -1.897992 
1.121947 0.712758 0.004957 0.000006 0.000001 -0.032335 
1.199318 -0.705952 0.004907 0.000283 0.000072 -1.617775 
1.160018 0.710058 0.004970 0.000596 0.000091 -1.669338 
1.209141 0.705018 0.004990 0.000001 0.000000 -0.006966 
1.036392 -0.718518 0.004885 0.000003 0.000001 -0.037493 
0.959331 0.722662 0.004914 0.000109 0.000036 -1.476541 
1.013469 0.720450 0.004918 0.000527 0.000043 -1.484074 
1.153479 -0.710618 0.004899 0.000187 0.000070 -1.616017 
0.215987 -0.631717 0.004879 0.000998 -0.000455 -1.596235 
0.250352 -0.644447 0.004899 0.000812 -0.000363 -1.648265 
0.359163 -0.678443 0.004945 0.000529 -0.000240 -1.644636 
0.373322 -0.681519 0.004947 0.000217 -0.000125 -1.704058 
0.517878 -0.708210 0.004954 -0.000083 -0.000031 -1.668401 
0.445084 -0.697106 0.004957 -0.000071 -0.000027 -1.423941 
0.635974 -0.720885 0.004936 -0.000284 0.000017 -1.643012 
0.540073 -0.711596 0.004953 -0.000248 0.000015 -1.433499 
0.686977 -0.723375 0.004925 -0.000363 0.000030 -1.656115 
0.738853 -0.725908 0.004914 -0.000285 0.000023 -1.476414 
0.884064 -0.725331 0.004889 -0.000145 0.000022 -1.603883 
0.853029 -0.726392 0.004891 -0.000137 0.000021 -1.516341 
0.882487 0.725802 0.004909 -0.000008 0.000001 -0.035482 
0.280025 -0.655439 0.004916 0.000802 -0.000359 -1.627328 
0.153190 -0.602844 0.004832 0.001107 -0.000518 -1.557028 
0.988174 -0.721772 0.004879 -0.000144 0.000036 -1.585004 
1.835887 -0.606472 0.004979 0.000523 0.000110 -1.611489 
1.700073 -0.633767 0.004933 0.000462 0.000097 -1.421850 
1.663482 -0.641121 0.004920 0.000070 0.000107 -1.717595 
1.529156 -0.663834 0.004914 0.000054 0.000083 -1.321259 
1.636829 0.645798 0.005000 0.000004 0.000006 -0.102739 
1.817057 0.610376 0.004916 0.000066 0.000027 -1.261972 
1.917639 0.587351 0.004921 0.000094 0.000038 -1.795843 
1.801720 0.613423 0.004923 -0.000636 -0.000055 -1.313935 
1.649106 0.643744 0.004996 -0.000638 -0.000028 -1.916873 
1.875348 -0.597259 0.004939 -0.001391 -0.000093 -1.389678 
1.363934 -0.687621 0.004924 -0.000036 0.000014 -0.114888 
1.458580 0.674847 0.005048 0.000161 0.000118 -1.539258 
1.317477 -0.693922 0.004928 0.000011 0.000008 -0.102614 
1.317631 0.693886 0.005035 0.000013 0.000006 -0.077291 
1.209141 -0.704951 0.004909 0.000023 0.000003 -0.054867 
1.286147 0.697117 0.005022 0.000678 0.000093 -1.618174 
1.482463 0.671621 0.005051 -0.000004 0.000003 -0.033253 
2.055203 -0.553519 0.004865 0.002410 -0.000203 -1.946498 
2.176255 0.515401 0.004903 -0.000008 -0.000001 -0.019081 
2.171992 -0.517293 0.004963 -0.000521 -0.000066 -1.186292 
2.091366 -0.543785 0.004909 0.000810 -0.000071 -1.173359 
2.243691 -0.488625 0.004930 -0.000874 -0.000057 -1.940978 
2.191591 -0.509457 0.004954 -0.000517 -0.000033 -1.148459 
2.233685 0.493074 0.004906 -0.000023 -0.000002 -0.052155 
2.083961 0.545848 0.004909 -0.000265 0.000059 -1.685288 
1.917639 -0.587386 0.004896 0.000000 0.000000 -0.003766 
1.987835 0.571281 0.004924 0.000074 0.000030 -1.406263 
1.992147 0.570294 0.004924 0.000091 0.000037 -1.731568 
2.052286 0.554282 0.004914 -0.000269 0.000059 -1.713620 
2.164972 0.519787 0.004903 0.000054 -0.000003 -1.419794 
2.307198 -0.457980 0.004922 0.000043 -0.000028 -1.083172 
2.271887 0.475210 0.004897 -0.000022 -0.000004 -0.042646 
2.363199 -0.425511 0.004924 0.000079 -0.000052 -1.995202 
2.310171 -0.456256 0.004922 0.000043 -0.000028 -1.086437 
2.439385 0.368816 0.004947 0.000790 0.000094 -0.867081 
2.412363 -0.391278 0.004895 -0.000499 0.000075 -0.841268 
2.409107 0.393831 0.004922 0.001614 0.000029 -2.158345 
2.296336 0.463777 0.004891 -0.000139 -0.000030 -0.939401 
2.356851 0.429638 0.004883 -0.000316 -0.000067 -2.134692 
2.398629 -0.400841 0.004903 -0.000004 -0.000001 -0.017332 
2.280075 0.471381 0.004895 -0.000253 -0.000044 -0.998291 
2.366875 0.422769 0.004891 0.001653 0.000030 -2.210066 
2.475606 -0.334934 0.004892 0.001370 0.000261 -2.311840 
2.517369 -0.286905 0.004973 0.002093 0.000201 -0.696167 
2.484569 -0.326081 0.004898 0.001543 0.000142 -0.748764 
2.568645 -0.199912 0.005142 0.002913 -0.000236 -2.560941 
2.567762 -0.202185 0.005142 0.006752 0.000610 -2.452167 
2.545031 -0.245683 0.005068 0.007196 0.000691 -2.393551 
2.526289 -0.273613 0.005004 0.002141 0.000206 -0.712224 
2.585653 -0.156124 0.005158 -0.000828 -0.000422 -0.518233 
2.606655 -0.054922 0.004962 -0.001709 -0.000661 -0.331356 
2.606975 0.051545 0.004627 -0.033919 -0.012850 -2.747829 
2.609333 0.000000 0.004839 -0.014109 -0.005461 -2.735858 
2.607587 -0.035826 0.004919 -0.001826 -0.000707 -0.354031 
2.525176 0.225654 0.004822 -0.000266 -0.000103 -0.051654 
2.449012 0.360862 0.004955 -0.001101 -0.000406 -0.218659 
2.587318 0.150755 0.004502 -0.002151 -0.000355 -0.334550 
2.599605 0.102446 0.004523 -0.002405 -0.000738 -0.294362 
2.547795 0.240805 0.004685 -0.008557 -0.000353 -1.449486 
2.546326 0.243050 0.004692 -0.008388 -0.000720 -1.462125 
2.570095 0.196786 0.004564 -0.016073 -0.002655 -2.499969 
2.581118 0.167325 0.004525 -0.002613 -0.000432 -0.406477 
2.520160 0.283018 0.004823 -0.008799 -0.000746 -2.540612 
2.450461 0.359664 0.004956 0.000112 0.000342 -0.280267 
2.486845 0.323533 0.004926 0.001089 0.003323 -2.725978 
2.498498 0.309361 0.004890 -0.009565 -0.000811 -2.761913 
2.601340 0.090461 0.004547 -0.003593 -0.001274 -0.369254 
2.598670 -0.107160 0.005097 -0.002271 -0.002700 -2.664400 
2.595037 -0.120827 0.005114 -0.000391 -0.000465 -0.458813 
2.451707 -0.358541 0.004875 -0.001378 0.000245 -2.261030 
2.449012 -0.360784 0.004876 -0.000534 0.000095 -0.876815 
2.271887 -0.475019 0.004927 -0.000115 -0.000035 -1.121225 
2.006133 -0.566727 0.004806 -0.002107 0.000508 -1.956078 
1.487990 -0.670795 0.004911 -0.000201 0.000145 -1.818176 
